# .PCD v0.7 - Point Cloud Data file format
VERSION 0.7
FIELDS x y z
SIZE 4 4 4
TYPE F F F
COUNT 1 1 1
WIDTH 1352
HEIGHT 1
VIEWPOINT 0 0 0 1 0 0 0
POINTS 1352
DATA ascii
-0.85000014 0.83999884 -0.087756604
-0.85000014 0.84999883 -0.079849668
-0.85000014 0.85999882 -0.07174322
-0.85000014 0.86999881 -0.06345737
-0.85000014 0.8799988 -0.055012997
-0.85000014 0.88999879 -0.046431039
-0.85000014 0.89999878 -0.0377331
-0.85000014 0.90999877 -0.028940773
-0.85000014 0.91999876 -0.020076193
-0.85000014 0.92999876 -0.011161347
-0.85000014 0.93999875 -0.0022186891
-0.85000014 0.94999874 0.0067295996
-0.85000014 0.95999873 0.015660983
-0.85000014 0.96999872 0.024553308
-0.85000014 0.97999871 0.033384174
-0.85000014 0.9899987 0.042131688
-0.85000014 0.99999869 0.050773807
-0.84000015 -1 0.049446639
-0.84000015 -0.99000001 0.041030537
-0.84000015 -0.98000002 0.032511964
-0.84000015 -0.97000003 0.023912126
-0.84000015 -0.96000004 0.015252437
-0.84000015 -0.95000005 0.0065546278
-0.84000015 -0.94000006 -0.0021594828
-0.84000015 -0.93000007 -0.010868196
-0.84000015 -0.92000008 -0.019549826
-0.84000015 -0.91000009 -0.028182594
-0.84000015 -0.9000001 -0.036744837
-0.84000015 -0.8900001 -0.045215238
-0.84000015 -0.88000011 -0.053572707
-0.84000015 -0.87000012 -0.061796263
-0.84000015 -0.86000013 -0.069865294
-0.84000015 -0.85000014 -0.077759698
-0.84000015 -0.84000015 -0.085459806
-0.84000015 -0.83000016 -0.092946313
-0.84000015 -0.82000017 -0.10020044
-0.84000015 -0.81000018 -0.10720412
-0.84000015 -0.80000019 -0.11393991
-0.84000015 -0.7900002 -0.12039087
-0.84000015 -0.78000021 -0.12654093
-0.84000015 -0.77000022 -0.13237469
-0.84000015 -0.76000023 -0.13787758
-0.84000015 -0.75000024 -0.14303587
-0.84000015 -0.74000025 -0.14783663
-0.84000015 -0.73000026 -0.15226789
-0.84000015 -0.72000027 -0.15631855
-0.84000015 -0.71000028 -0.15997848
-0.84000015 -0.70000029 -0.16323857
-0.84000015 -0.6900003 -0.16609064
-0.84000015 -0.68000031 -0.16852759
-0.84000015 -0.67000031 -0.17054328
-0.84000015 -0.66000032 -0.17213272
-0.84000015 -0.65000033 -0.17329191
-0.84000015 -0.64000034 -0.17401795
-0.84000015 -0.63000035 -0.17430906
-0.84000015 -0.62000036 -0.17416447
-0.84000015 -0.61000037 -0.17358458
-0.84000015 -0.60000038 -0.17257081
-0.84000015 -0.59000039 -0.17112571
-0.84000015 -0.5800004 -0.16925287
-0.84000015 -0.57000041 -0.16695701
-0.84000015 -0.56000042 -0.16424383
-0.84000015 -0.55000043 -0.16112012
-0.84000015 -0.54000044 -0.1575937
-0.84000015 -0.53000045 -0.15367338
-0.84000015 -0.52000046 -0.14936896
-0.84000015 -0.51000047 -0.1446912
-0.84000015 -0.50000048 -0.13965178
-0.84000015 -0.49000049 -0.13426331
-0.84000015 -0.4800005 -0.12853925
-0.84000015 -0.47000051 -0.1224939
-0.84000015 -0.46000051 -0.11614239
-0.84000015 -0.45000052 -0.10950059
-0.84000015 -0.44000053 -0.10258508
-0.84000015 -0.43000054 -0.095413171
-0.84000015 -0.42000055 -0.088002779
-0.84000015 -0.41000056 -0.080372423
-0.84000015 -0.40000057 -0.072541185
-0.84000015 -0.39000058 -0.064528622
-0.84000015 -0.38000059 -0.056354783
-0.84000015 -0.3700006 -0.048040081
-0.84000015 -0.36000061 -0.039605305
-0.84000015 -0.35000062 -0.031071533
-0.84000015 -0.34000063 -0.022460101
-0.84000015 -0.33000064 -0.013792531
-0.84000015 -0.32000065 -0.0050904863
-0.84000015 -0.31000066 0.0036242816
-0.84000015 -0.30000067 0.012329991
-0.84000015 -0.29000068 0.021004882
-0.84000015 -0.28000069 0.029627271
-0.84000015 -0.2700007 0.038175609
-0.84000015 -0.26000071 0.046628524
-0.84000015 -0.25000072 0.054964896
-0.84000015 -0.24000071 0.063163906
-0.84000015 -0.2300007 0.071205013
-0.84000015 -0.2200007 0.079068169
-0.84000015 -0.21000069 0.086733676
-0.84000015 -0.20000069 0.094182417
-0.84000015 -0.19000068 0.10139574
-0.84000015 -0.18000068 0.10835562
-0.84000015 -0.17000067 0.11504467
-0.84000015 -0.16000067 0.12144617
-0.84000015 -0.15000066 0.12754412
-0.84000015 -0.14000066 0.13332327
-0.84000015 -0.13000065 0.13876918
-0.84000015 -0.12000065 0.14386824
-0.84000015 -0.11000066 0.1486077
-0.84000015 -0.10000066 0.15297572
-0.84000015 -0.090000659 0.15696138
-0.84000015 -0.080000661 0.16055474
-0.84000015 -0.070000663 0.16374677
-0.84000015 -0.060000662 0.16652952
-0.84000015 -0.05000066 0.16889605
-0.84000015 -0.040000658 0.17084041
-0.84000015 -0.030000659 0.17235777
-0.84000015 -0.020000659 0.17344432
-0.84000015 -0.010000659 0.17409734
-0.84000015 -6.5915287e-07 0.17431523
-0.84000015 0.0099993404 0.1740974
-0.84000015 0.01999934 0.17344444
-0.84000015 0.02999934 0.17235793
-0.84000015 0.03999934 0.17084065
-0.84000015 0.049999341 0.16889633
-0.84000015 0.059999343 0.16652986
-0.84000015 0.069999345 0.16374716
-0.84000015 0.079999343 0.16055518
-0.84000015 0.08999934 0.15696189
-0.84000015 0.099999338 0.15297627
-0.84000015 0.10999934 0.14860831
-0.84000015 0.11999933 0.14386889
-0.84000015 0.12999934 0.13876987
-0.84000015 0.13999934 0.13332401
-0.84000015 0.14999935 0.12754489
-0.84000015 0.15999936 0.121447
-0.84000015 0.16999936 0.11504553
-0.84000015 0.17999937 0.10835652
-0.84000015 0.18999937 0.10139666
-0.84000015 0.19999938 0.09418337
-0.84000015 0.20999938 0.086734682
-0.84000015 0.21999939 0.07906919
-0.84000015 0.22999939 0.071206056
-0.84000015 0.2399994 0.063164972
-0.84000015 0.2499994 0.054965984
-0.84000015 0.25999939 0.046629626
-0.84000015 0.26999938 0.038176723
-0.84000015 0.27999938 0.029628396
-0.84000015 0.28999937 0.021006016
-0.84000015 0.29999936 0.01233113
-0.84000015 0.30999935 0.0036254243
-0.84000015 0.31999934 -0.005089344
-0.84000015 0.32999933 -0.013791392
-0.84000015 0.33999932 -0.022458969
-0.84000015 0.34999931 -0.031070409
-0.84000015 0.3599993 -0.039604187
-0.84000015 0.36999929 -0.048038982
-0.84000015 0.37999928 -0.056353703
-0.84000015 0.38999927 -0.064527564
-0.84000015 0.39999926 -0.072540142
-0.84000015 0.40999925 -0.080371425
-0.84000015 0.41999924 -0.088001773
-0.84000015 0.42999923 -0.095412239
-0.84000015 0.43999922 -0.10258414
-0.84000015 0.44999921 -0.10949972
-0.84000015 0.4599992 -0.11614152
-0.84000015 0.46999919 -0.1224931
-0.84000015 0.47999918 -0.12853846
-0.84000015 0.48999918 -0.13426259
-0.84000015 0.49999917 -0.13965108
-0.84000015 0.50999916 -0.14469057
-0.84000015 0.51999915 -0.14936836
-0.84000015 0.52999914 -0.15367286
-0.84000015 0.53999913 -0.15759321
-0.84000015 0.54999912 -0.16111968
-0.84000015 0.55999911 -0.16424343
-0.84000015 0.5699991 -0.16695668
-0.84000015 0.57999909 -0.16925259
-0.84000015 0.58999908 -0.1711255
-0.84000015 0.59999907 -0.17257065
-0.84000015 0.60999906 -0.17358448
-0.84000015 0.61999905 -0.17416443
-0.84000015 0.62999904 -0.17430907
-0.84000015 0.63999903 -0.17401803
-0.84000015 0.64999902 -0.17329203
-0.84000015 0.65999901 -0.17213289
-0.84000015 0.669999 -0.17054351
-0.84000015 0.67999899 -0.16852787
-0.84000015 0.68999898 -0.16609098
-0.84000015 0.69999897 -0.16323899
-0.84000015 0.70999897 -0.15997893
-0.84000015 0.71999896 -0.15631905
-0.84000015 0.72999895 -0.15226842
-0.84000015 0.73999894 -0.14783725
-0.84000015 0.74999893 -0.14303651
-0.84000015 0.75999892 -0.1378783
-0.84000015 0.76999891 -0.13237542
-0.84000015 0.7799989 -0.12654173
-0.84000015 0.78999889 -0.12039169
-0.84000015 0.79999888 -0.11394079
-0.84000015 0.80999887 -0.10720504
-0.84000015 0.81999886 -0.10020139
-0.84000015 0.82999885 -0.09294723
-0.84000015 0.83999884 -0.085460819
-0.84000015 0.84999883 -0.077760734
-0.84000015 0.85999882 -0.069866359
-0.84000015 0.86999881 -0.061797276
-0.84000015 0.8799988 -0.053573813
-0.84000015 0.88999879 -0.045216363
-0.84000015 0.89999878 -0.036745973
-0.84000015 0.90999877 -0.02818366
-0.84000015 0.91999876 -0.019550983
-0.84000015 0.92999876 -0.010869357
-0.84000015 0.93999875 -0.0021606463
-0.84000015 0.94999874 0.0065535479
-0.84000015 0.95999873 0.01525128
-0.84000015 0.96999872 0.023910973
-0.84000015 0.97999871 0.032510817
-0.84000015 0.9899987 0.041029487
-0.84000015 0.99999869 0.049445525
-0.83000016 -1 0.047994737
-0.83000016 -0.99000001 0.039825756
-0.83000016 -0.98000002 0.031557314
-0.83000016 -0.97000003 0.023209993
-0.83000016 -0.96000004 0.014804579
-0.83000016 -0.95000005 0.0063621639
-0.83000016 -0.94000006 -0.0020960737
-0.83000016 -0.93000007 -0.010549072
-0.83000016 -0.92000008 -0.018975783
-0.83000016 -0.91000009 -0.027355067
-0.83000016 -0.9000001 -0.035665896
-0.83000016 -0.8900001 -0.043887578
-0.83000016 -0.88000011 -0.051999647
-0.83000016 -0.87000012 -0.059981737
-0.83000016 -0.86000013 -0.067813829
-0.83000016 -0.85000014 -0.07547643
-0.83000016 -0.84000015 -0.08295045
-0.83000016 -0.83000016 -0.090217128
-0.83000016 -0.82000017 -0.097258255
-0.83000016 -0.81000018 -0.10405628
-0.83000016 -0.80000019 -0.11059428
-0.83000016 -0.7900002 -0.11685582
-0.83000016 -0.78000021 -0.1228253
-0.83000016 -0.77000022 -0.12848777
-0.83000016 -0.76000023 -0.13382909
-0.83000016 -0.75000024 -0.13883589
-0.83000016 -0.74000025 -0.14349569
-0.83000016 -0.73000026 -0.14779682
-0.83000016 -0.72000027 -0.15172856
-0.83000016 -0.71000028 -0.15528102
-0.83000016 -0.70000029 -0.15844539
-0.83000016 -0.6900003 -0.16121371
-0.83000016 -0.68000031 -0.16357909
-0.83000016 -0.67000031 -0.16553561
-0.83000016 -0.66000032 -0.16707838
-0.83000016 -0.65000033 -0.16820352
-0.83000016 -0.64000034 -0.16890825
-0.83000016 -0.63000035 -0.16919081
-0.83000016 -0.62000036 -0.16905047
-0.83000016 -0.61000037 -0.16848761
-0.83000016 -0.60000038 -0.1675036
-0.83000016 -0.59000039 -0.16610093
-0.83000016 -0.5800004 -0.1642831
-0.83000016 -0.57000041 -0.16205463
-0.83000016 -0.56000042 -0.15942113
-0.83000016 -0.55000043 -0.15638913
-0.83000016 -0.54000044 -0.15296626
-0.83000016 -0.53000045 -0.14916107
-0.83000016 -0.52000046 -0.14498302
-0.83000016 -0.51000047 -0.14044261
-0.83000016 -0.50000048 -0.13555117
-0.83000016 -0.49000049 -0.13032092
-0.83000016 -0.4800005 -0.12476494
-0.83000016 -0.47000051 -0.1188971
-0.83000016 -0.46000051 -0.1127321
-0.83000016 -0.45000052 -0.10628531
-0.83000016 -0.44000053 -0.099572875
-0.83000016 -0.43000054 -0.092611551
-0.83000016 -0.42000055 -0.085418746
-0.83000016 -0.41000056 -0.078012444
-0.83000016 -0.40000057 -0.070411153
-0.83000016 -0.39000058 -0.062633865
-0.83000016 -0.38000059 -0.054700036
-0.83000016 -0.3700006 -0.046629474
-0.83000016 -0.36000061 -0.03844237
-0.83000016 -0.35000062 -0.030159177
-0.83000016 -0.34000063 -0.021800604
-0.83000016 -0.33000064 -0.013387539
-0.83000016 -0.32000065 -0.0049410141
-0.83000016 -0.31000066 0.0035178617
-0.83000016 -0.30000067 0.011967945
-0.83000016 -0.29000068 0.020388113
-0.83000016 -0.28000069 0.028757324
-0.83000016 -0.2700007 0.037054654
-0.83000016 -0.26000071 0.045259368
-0.83000016 -0.25000072 0.053350959
-0.83000016 -0.24000071 0.061309218
-0.83000016 -0.2300007 0.069114216
-0.83000016 -0.2200007 0.076746486
-0.83000016 -0.21000069 0.084186912
-0.83000016 -0.20000069 0.091416933
-0.83000016 -0.19000068 0.098418452
-0.83000016 -0.18000068 0.10517397
-0.83000016 -0.17000067 0.1116666
-0.83000016 -0.16000067 0.11788014
-0.83000016 -0.15000066 0.12379903
-0.83000016 -0.14000066 0.12940849
-0.83000016 -0.13000065 0.1346945
-0.83000016 -0.12000065 0.13964383
-0.83000016 -0.11000066 0.14424412
-0.83000016 -0.10000066 0.14848389
-0.83000016 -0.090000659 0.15235251
-0.83000016 -0.080000661 0.15584035
-0.83000016 -0.070000663 0.15893866
-0.83000016 -0.060000662 0.16163971
-0.83000016 -0.05000066 0.16393673
-0.83000016 -0.040000658 0.16582401
-0.83000016 -0.030000659 0.16729681
-0.83000016 -0.020000659 0.16835146
-0.83000016 -0.010000659 0.16898532
-0.83000016 -6.5915287e-07 0.1691968
-0.83000016 0.0099993404 0.16898538
-0.83000016 0.01999934 0.16835158
-0.83000016 0.02999934 0.16729698
-0.83000016 0.03999934 0.16582423
-0.83000016 0.049999341 0.16393702
-0.83000016 0.059999343 0.16164003
-0.83000016 0.069999345 0.15893905
-0.83000016 0.079999343 0.15584078
-0.83000016 0.08999934 0.15235302
-0.83000016 0.099999338 0.14848442
-0.83000016 0.10999934 0.14424472
-0.83000016 0.11999933 0.13964446
-0.83000016 0.12999934 0.13469516
-0.83000016 0.13999934 0.12940921
-0.83000016 0.14999935 0.12379979
-0.83000016 0.15999936 0.11788094
-0.83000016 0.16999936 0.11166744
-0.83000016 0.17999937 0.10517484
-0.83000016 0.18999937 0.098419353
-0.83000016 0.19999938 0.091417857
-0.83000016 0.20999938 0.084187888
-0.83000016 0.21999939 0.076747477
-0.83000016 0.22999939 0.069115229
-0.83000016 0.2399994 0.06131025
-0.83000016 0.2499994 0.053352013
-0.83000016 0.25999939 0.045260437
-0.83000016 0.26999938 0.037055738
-0.83000016 0.27999938 0.028758416
-0.83000016 0.28999937 0.020389214
-0.83000016 0.29999936 0.01196905
-0.83000016 0.30999935 0.0035189707
-0.83000016 0.31999934 -0.0049399054
-0.83000016 0.32999933 -0.013386434
-0.83000016 0.33999932 -0.021799505
-0.83000016 0.34999931 -0.030158086
-0.83000016 0.3599993 -0.038441289
-0.83000016 0.36999929 -0.046628412
-0.83000016 0.37999928 -0.054698985
-0.83000016 0.38999927 -0.062632836
-0.83000016 0.39999926 -0.07041014
-0.83000016 0.40999925 -0.078011476
-0.83000016 0.41999924 -0.08541777
-0.83000016 0.42999923 -0.092610642
-0.83000016 0.43999922 -0.099571958
-0.83000016 0.44999921 -0.10628446
-0.83000016 0.4599992 -0.11273125
-0.83000016 0.46999919 -0.11889633
-0.83000016 0.47999918 -0.12476417
-0.83000016 0.48999918 -0.13032022
-0.83000016 0.49999917 -0.1355505
-0.83000016 0.50999916 -0.14044201
-0.83000016 0.51999915 -0.14498246
-0.83000016 0.52999914 -0.14916055
-0.83000016 0.53999913 -0.15296578
-0.83000016 0.54999912 -0.15638873
-0.83000016 0.55999911 -0.15942074
-0.83000016 0.5699991 -0.16205432
-0.83000016 0.57999909 -0.16428281
-0.83000016 0.58999908 -0.16610073
-0.83000016 0.59999907 -0.16750345
-0.83000016 0.60999906 -0.1684875
-0.83000016 0.61999905 -0.16905044
-0.83000016 0.62999904 -0.16919082
-0.83000016 0.63999903 -0.16890833
-0.83000016 0.64999902 -0.16820364
-0.83000016 0.65999901 -0.16707855
-0.83000016 0.669999 -0.16553584
-0.83000016 0.67999899 -0.16357937
-0.83000016 0.68999898 -0.16121404
-0.83000016 0.69999897 -0.15844578
-0.83000016 0.70999897 -0.15528145
-0.83000016 0.71999896 -0.15172905
-0.83000016 0.72999895 -0.14779736
-0.83000016 0.73999894 -0.1434963
-0.83000016 0.74999893 -0.13883652
-0.83000016 0.75999892 -0.13382977
-0.83000016 0.76999891 -0.12848847
-0.83000016 0.7799989 -0.12282608
-0.83000016 0.78999889 -0.11685662
-0.83000016 0.79999888 -0.11059514
-0.83000016 0.80999887 -0.10405717
-0.83000016 0.81999886 -0.097259171
-0.83000016 0.82999885 -0.090218015
-0.83000016 0.83999884 -0.082951434
-0.83000016 0.84999883 -0.075477436
-0.83000016 0.85999882 -0.067814864
-0.83000016 0.86999881 -0.059982721
-0.83000016 0.8799988 -0.05200072
-0.83000016 0.88999879 -0.043888673
-0.83000016 0.89999878 -0.035666998
-0.83000016 0.90999877 -0.027356101
-0.83000016 0.91999876 -0.018976906
-0.83000016 0.92999876 -0.010550199
-0.83000016 0.93999875 -0.0020972032
-0.83000016 0.94999874 0.0063611157
-0.83000016 0.95999873 0.014803455
-0.83000016 0.96999872 0.023208873
-0.83000016 0.97999871 0.0315562
-0.83000016 0.9899987 0.039824735
-0.83000016 0.99999869 0.047993653
-0.82000017 -1 0.046422884
-0.82000017 -0.99000001 0.038521443
-0.82000017 -0.98000002 0.030523796
-0.82000017 -0.97000003 0.022449855
-0.82000017 -0.96000004 0.014319723
-0.82000017 -0.95000005 0.0061538001
-0.82000017 -0.94000006 -0.0020274264
-0.82000017 -0.93000007 -0.010203585
-0.82000017 -0.92000008 -0.018354317
-0.82000017 -0.91000009 -0.026459176
-0.82000017 -0.9000001 -0.03449782
-0.82000017 -0.8900001 -0.042450238
-0.82000017 -0.88000011 -0.050296634
-0.82000017 -0.87000012 -0.058017306
-0.82000017 -0.86000013 -0.0655929
-0.82000017 -0.85000014 -0.073004544
-0.82000017 -0.84000015 -0.080233783
-0.82000017 -0.83000016 -0.087262474
-0.82000017 -0.82000017 -0.094072998
-0.82000017 -0.81000018 -0.10064839
-0.82000017 -0.80000019 -0.10697227
-0.82000017 -0.7900002 -0.11302874
-0.82000017 -0.78000021 -0.11880271
-0.82000017 -0.77000022 -0.12427973
-0.82000017 -0.76000023 -0.12944612
-0.82000017 -0.75000024 -0.13428895
-0.82000017 -0.74000025 -0.13879614
-0.82000017 -0.73000026 -0.14295641
-0.82000017 -0.72000027 -0.14675938
-0.82000017 -0.71000028 -0.15019549
-0.82000017 -0.70000029 -0.15325622
-0.82000017 -0.6900003 -0.15593389
-0.82000017 -0.68000031 -0.1582218
-0.82000017 -0.67000031 -0.16011424
-0.82000017 -0.66000032 -0.16160648
-0.82000017 -0.65000033 -0.16269478
-0.82000017 -0.64000034 -0.16337644
-0.82000017 -0.63000035 -0.16364974
-0.82000017 -0.62000036 -0.16351399
-0.82000017 -0.61000037 -0.16296956
-0.82000017 -0.60000038 -0.16201778
-0.82000017 -0.59000039 -0.16066104
-0.82000017 -0.5800004 -0.15890275
-0.82000017 -0.57000041 -0.15674727
-0.82000017 -0.56000042 -0.1542
-0.82000017 -0.55000043 -0.15126732
-0.82000017 -0.54000044 -0.14795655
-0.82000017 -0.53000045 -0.14427596
-0.82000017 -0.52000046 -0.14023477
-0.82000017 -0.51000047 -0.13584305
-0.82000017 -0.50000048 -0.1311118
-0.82000017 -0.49000049 -0.12605284
-0.82000017 -0.4800005 -0.12067883
-0.82000017 -0.47000051 -0.11500317
-0.82000017 -0.46000051 -0.10904007
-0.82000017 -0.45000052 -0.10280441
-0.82000017 -0.44000053 -0.096311815
-0.82000017 -0.43000054 -0.08957848
-0.82000017 -0.42000055 -0.082621239
-0.82000017 -0.41000056 -0.075457498
-0.82000017 -0.40000057 -0.068105154
-0.82000017 -0.39000058 -0.060582578
-0.82000017 -0.38000059 -0.052908581
-0.82000017 -0.3700006 -0.045102336
-0.82000017 -0.36000061 -0.037183363
-0.82000017 -0.35000062 -0.02917145
-0.82000017 -0.34000063 -0.021086624
-0.82000017 -0.33000064 -0.01294909
-0.82000017 -0.32000065 -0.0047791936
-0.82000017 -0.31000066 0.0034026499
-0.82000017 -0.30000067 0.011575989
-0.82000017 -0.29000068 0.019720394
-0.82000017 -0.28000069 0.027815508
-0.82000017 -0.2700007 0.035841096
-0.82000017 -0.26000071 0.043777101
-0.82000017 -0.25000072 0.05160369
-0.82000017 -0.24000071 0.059301313
-0.82000017 -0.2300007 0.066850692
-0.82000017 -0.2200007 0.074233003
-0.82000017 -0.21000069 0.08142975
-0.82000017 -0.20000069 0.088422984
-0.82000017 -0.19000068 0.095195204
-0.82000017 -0.18000068 0.10172947
-0.82000017 -0.17000067 0.10800947
-0.82000017 -0.16000067 0.11401951
-0.82000017 -0.15000066 0.11974455
-0.82000017 -0.14000066 0.12517031
-0.82000017 -0.13000065 0.13028319
-0.82000017 -0.12000065 0.13507043
-0.82000017 -0.11000066 0.13952006
-0.82000017 -0.10000066 0.14362097
-0.82000017 -0.090000659 0.1473629
-0.82000017 -0.080000661 0.15073651
-0.82000017 -0.070000663 0.15373334
-0.82000017 -0.060000662 0.15634593
-0.82000017 -0.05000066 0.15856773
-0.82000017 -0.040000658 0.16039321
-0.82000017 -0.030000659 0.16181777
-0.82000017 -0.020000659 0.16283786
-0.82000017 -0.010000659 0.16345097
-0.82000017 -6.5915287e-07 0.16365552
-0.82000017 0.0099993404 0.16345103
-0.82000017 0.01999934 0.16283797
-0.82000017 0.02999934 0.16181792
-0.82000017 0.03999934 0.16039342
-0.82000017 0.049999341 0.15856801
-0.82000017 0.059999343 0.15634625
-0.82000017 0.069999345 0.15373372
-0.82000017 0.079999343 0.15073693
-0.82000017 0.08999934 0.14736338
-0.82000017 0.099999338 0.14362149
-0.82000017 0.10999934 0.13952063
-0.82000017 0.11999933 0.13507104
-0.82000017 0.12999934 0.13028383
-0.82000017 0.13999934 0.12517099
-0.82000017 0.14999935 0.11974528
-0.82000017 0.15999936 0.11402028
-0.82000017 0.16999936 0.10801028
-0.82000017 0.17999937 0.10173032
-0.82000017 0.18999937 0.095196068
-0.82000017 0.19999938 0.088423878
-0.82000017 0.20999938 0.081430696
-0.82000017 0.21999939 0.074233957
-0.82000017 0.22999939 0.066851676
-0.82000017 0.2399994 0.059302311
-0.82000017 0.2499994 0.051604711
-0.82000017 0.25999939 0.043778136
-0.82000017 0.26999938 0.035842143
-0.82000017 0.27999938 0.027816564
-0.82000017 0.28999937 0.019721458
-0.82000017 0.29999936 0.011577059
-0.82000017 0.30999935 0.0034037228
-0.82000017 0.31999934 -0.0047781211
-0.82000017 0.32999933 -0.012948021
-0.82000017 0.33999932 -0.02108556
-0.82000017 0.34999931 -0.029170394
-0.82000017 0.3599993 -0.037182316
-0.82000017 0.36999929 -0.045101307
-0.82000017 0.37999928 -0.052907567
-0.82000017 0.38999927 -0.060581584
-0.82000017 0.39999926 -0.068104178
-0.82000017 0.40999925 -0.07545656
-0.82000017 0.41999924 -0.082620293
-0.82000017 0.42999923 -0.0895776
-0.82000017 0.43999922 -0.096310928
-0.82000017 0.44999921 -0.1028036
-0.82000017 0.4599992 -0.10903925
-0.82000017 0.46999919 -0.11500242
-0.82000017 0.47999918 -0.12067809
-0.82000017 0.48999918 -0.12605217
-0.82000017 0.49999917 -0.13111115
-0.82000017 0.50999916 -0.13584247
-0.82000017 0.51999915 -0.1402342
-0.82000017 0.52999914 -0.14427547
-0.82000017 0.53999913 -0.14795607
-0.82000017 0.54999912 -0.15126692
-0.82000017 0.55999911 -0.15419963
-0.82000017 0.5699991 -0.15674695
-0.82000017 0.57999909 -0.15890248
-0.82000017 0.58999908 -0.16066085
-0.82000017 0.59999907 -0.16201763
-0.82000017 0.60999906 -0.16296946
-0.82000017 0.61999905 -0.16351394
-0.82000017 0.62999904 -0.16364974
-0.82000017 0.63999903 -0.1633765
-0.82000017 0.64999902 -0.16269489
-0.82000017 0.65999901 -0.16160665
-0.82000017 0.669999 -0.16011445
-0.82000017 0.67999899 -0.15822208
-0.82000017 0.68999898 -0.1559342
-0.82000017 0.69999897 -0.15325661
-0.82000017 0.70999897 -0.15019591
-0.82000017 0.71999896 -0.14675985
-0.82000017 0.72999895 -0.14295693
-0.82000017 0.73999894 -0.13879673
-0.82000017 0.74999893 -0.13428956
-0.82000017 0.75999892 -0.12944679
-0.82000017 0.76999891 -0.12428042
-0.82000017 0.7799989 -0.11880346
-0.82000017 0.78999889 -0.11302951
-0.82000017 0.79999888 -0.1069731
-0.82000017 0.80999887 -0.10064925
-0.82000017 0.81999886 -0.094073884
-0.82000017 0.82999885 -0.087263331
-0.82000017 0.83999884 -0.080234729
-0.82000017 0.84999883 -0.07300552
-0.82000017 0.85999882 -0.065593898
-0.82000017 0.86999881 -0.058018256
-0.82000017 0.8799988 -0.050297674
-0.82000017 0.88999879 -0.042451296
-0.82000017 0.89999878 -0.034498885
-0.82000017 0.90999877 -0.026460174
-0.82000017 0.91999876 -0.018355403
-0.82000017 0.92999876 -0.010204676
-0.82000017 0.93999875 -0.0020285188
-0.82000017 0.94999874 0.0061527858
-0.82000017 0.95999873 0.014318635
-0.82000017 0.96999872 0.022448773
-0.82000017 0.97999871 0.030522719
-0.82000017 0.9899987 0.038520459
-0.82000017 0.99999869 0.046421837
-0.81000018 -1 0.044735
-0.81000018 -0.99000001 0.037120845
-0.81000018 -0.98000002 0.029413983
-0.81000018 -0.97000003 0.021633603
-0.81000018 -0.96000004 0.013799073
-0.81000018 -0.95000005 0.0059300545
-0.81000018 -0.94000006 -0.0019537115
-0.81000018 -0.93000007 -0.0098325945
-0.81000018 -0.92000008 -0.017686974
-0.81000018 -0.91000009 -0.02549715
-0.81000018 -0.9000001 -0.033243518
-0.81000018 -0.8900001 -0.040906794
-0.81000018 -0.88000011 -0.048467904
-0.81000018 -0.87000012 -0.05590786
-0.81000018 -0.86000013 -0.063208014
-0.81000018 -0.85000014 -0.070350178
-0.81000018 -0.84000015 -0.077316567
-0.81000018 -0.83000016 -0.084089704
-0.81000018 -0.82000017 -0.090652607
-0.81000018 -0.81000018 -0.096988924
-0.81000018 -0.80000019 -0.10308287
-0.81000018 -0.7900002 -0.10891914
-0.81000018 -0.78000021 -0.11448318
-0.81000018 -0.77000022 -0.11976106
-0.81000018 -0.76000023 -0.12473959
-0.81000018 -0.75000024 -0.12940636
-0.81000018 -0.74000025 -0.13374966
-0.81000018 -0.73000026 -0.13775867
-0.81000018 -0.72000027 -0.14142336
-0.81000018 -0.71000028 -0.14473456
-0.81000018 -0.70000029 -0.14768401
-0.81000018 -0.6900003 -0.15026429
-0.81000018 -0.68000031 -0.15246904
-0.81000018 -0.67000031 -0.15429266
-0.81000018 -0.66000032 -0.15573063
-0.81000018 -0.65000033 -0.15677938
-0.81000018 -0.64000034 -0.15743625
-0.81000018 -0.63000035 -0.15769961
-0.81000018 -0.62000036 -0.1575688
-0.81000018 -0.61000037 -0.15704416
-0.81000018 -0.60000038 -0.15612699
-0.81000018 -0.59000039 -0.15481959
-0.81000018 -0.5800004 -0.15312521
-0.81000018 -0.57000041 -0.15104811
-0.81000018 -0.56000042 -0.14859347
-0.81000018 -0.55000043 -0.14576741
-0.81000018 -0.54000044 -0.14257701
-0.81000018 -0.53000045 -0.13903026
-0.81000018 -0.52000046 -0.13513598
-0.81000018 -0.51000047 -0.13090394
-0.81000018 -0.50000048 -0.12634473
-0.81000018 -0.49000049 -0.12146971
-0.81000018 -0.4800005 -0.11629108
-0.81000018 -0.47000051 -0.11082178
-0.81000018 -0.46000051 -0.10507549
-0.81000018 -0.45000052 -0.099066563
-0.81000018 -0.44000053 -0.092810027
-0.81000018 -0.43000054 -0.086321503
-0.81000018 -0.42000055 -0.079617225
-0.81000018 -0.41000056 -0.072713949
-0.81000018 -0.40000057 -0.065628923
-0.81000018 -0.39000058 -0.058379862
-0.81000018 -0.38000059 -0.050984886
-0.81000018 -0.3700006 -0.043462466
-0.81000018 -0.36000061 -0.035831418
-0.81000018 -0.35000062 -0.02811081
-0.81000018 -0.34000063 -0.020319937
-0.81000018 -0.33000064 -0.012478276
-0.81000018 -0.32000065 -0.0046054274
-0.81000018 -0.31000066 0.0032789335
-0.81000018 -0.30000067 0.011155099
-0.81000018 -0.29000068 0.019003382
-0.81000018 -0.28000069 0.026804168
-0.81000018 -0.2700007 0.034537956
-0.81000018 -0.26000071 0.042185415
-0.81000018 -0.25000072 0.049727436
-0.81000018 -0.24000071 0.057145182
-0.81000018 -0.2300007 0.064420074
-0.81000018 -0.2200007 0.071533971
-0.81000018 -0.21000069 0.078469053
-0.81000018 -0.20000069 0.085208021
-0.81000018 -0.19000068 0.091734007
-0.81000018 -0.18000068 0.098030694
-0.81000018 -0.17000067 0.10408236
-0.81000018 -0.16000067 0.10987388
-0.81000018 -0.15000066 0.11539077
-0.81000018 -0.14000066 0.12061924
-0.81000018 -0.13000065 0.12554623
-0.81000018 -0.12000065 0.13015942
-0.81000018 -0.11000066 0.13444726
-0.81000018 -0.10000066 0.13839908
-0.81000018 -0.090000659 0.14200495
-0.81000018 -0.080000661 0.14525589
-0.81000018 -0.070000663 0.14814377
-0.81000018 -0.060000662 0.15066136
-0.81000018 -0.05000066 0.15280238
-0.81000018 -0.040000658 0.15456149
-0.81000018 -0.030000659 0.15593426
-0.81000018 -0.020000659 0.15691726
-0.81000018 -0.010000659 0.15750808
-0.81000018 -6.5915287e-07 0.15770519
-0.81000018 0.0099993404 0.15750812
-0.81000018 0.01999934 0.15691736
-0.81000018 0.02999934 0.15593441
-0.81000018 0.03999934 0.15456168
-0.81000018 0.049999341 0.15280265
-0.81000018 0.059999343 0.15066168
-0.81000018 0.069999345 0.14814413
-0.81000018 0.079999343 0.1452563
-0.81000018 0.08999934 0.14200541
-0.81000018 0.099999338 0.13839957
-0.81000018 0.10999934 0.13444781
-0.81000018 0.11999933 0.13016
-0.81000018 0.12999934 0.12554686
-0.81000018 0.13999934 0.12061992
-0.81000018 0.14999935 0.11539148
-0.81000018 0.15999936 0.10987463
-0.81000018 0.16999936 0.10408314
-0.81000018 0.17999937 0.098031513
-0.81000018 0.18999937 0.091734849
-0.81000018 0.19999938 0.085208885
-0.81000018 0.20999938 0.078469962
-0.81000018 0.21999939 0.071534894
-0.81000018 0.22999939 0.06442102
-0.81000018 0.2399994 0.057146147
-0.81000018 0.2499994 0.04972842
-0.81000018 0.25999939 0.042186413
-0.81000018 0.26999938 0.034538962
-0.81000018 0.27999938 0.026805185
-0.81000018 0.28999937 0.019004408
-0.81000018 0.29999936 0.01115613
-0.81000018 0.30999935 0.003279967
-0.81000018 0.31999934 -0.0046043936
-0.81000018 0.32999933 -0.012477246
-0.81000018 0.33999932 -0.020318912
-0.81000018 0.34999931 -0.028109791
-0.81000018 0.3599993 -0.035830408
-0.81000018 0.36999929 -0.043461476
-0.81000018 0.37999928 -0.050983906
-0.81000018 0.38999927 -0.058378905
-0.81000018 0.39999926 -0.065627985
-0.81000018 0.40999925 -0.072713047
-0.81000018 0.41999924 -0.079616316
-0.81000018 0.42999923 -0.086320654
-0.81000018 0.43999922 -0.09280917
-0.81000018 0.44999921 -0.099065773
-0.81000018 0.4599992 -0.1050747
-0.81000018 0.46999919 -0.11082105
-0.81000018 0.47999918 -0.11629037
-0.81000018 0.48999918 -0.12146906
-0.81000018 0.49999917 -0.1263441
-0.81000018 0.50999916 -0.13090339
-0.81000018 0.51999915 -0.13513544
-0.81000018 0.52999914 -0.13902977
-0.81000018 0.53999913 -0.14257656
-0.81000018 0.54999912 -0.14576702
-0.81000018 0.55999911 -0.14859311
-0.81000018 0.5699991 -0.15104781
-0.81000018 0.57999909 -0.15312496
-0.81000018 0.58999908 -0.1548194
-0.81000018 0.59999907 -0.15612686
-0.81000018 0.60999906 -0.15704407
-0.81000018 0.61999905 -0.15756877
-0.81000018 0.62999904 -0.15769963
-0.81000018 0.63999903 -0.15743631
-0.81000018 0.64999902 -0.15677948
-0.81000018 0.65999901 -0.15573081
-0.81000018 0.669999 -0.15429287
-0.81000018 0.67999899 -0.15246929
-0.81000018 0.68999898 -0.15026461
-0.81000018 0.69999897 -0.14768437
-0.81000018 0.70999897 -0.14473496
-0.81000018 0.71999896 -0.14142382
-0.81000018 0.72999895 -0.13775918
-0.81000018 0.73999894 -0.13375023
-0.81000018 0.74999893 -0.12940694
-0.81000018 0.75999892 -0.12474024
-0.81000018 0.76999891 -0.11976171
-0.81000018 0.7799989 -0.1144839
-0.81000018 0.78999889 -0.10891988
-0.81000018 0.79999888 -0.10308368
-0.81000018 0.80999887 -0.096989751
-0.81000018 0.81999886 -0.090653464
-0.81000018 0.82999885 -0.084090531
-0.81000018 0.83999884 -0.077317484
-0.81000018 0.84999883 -0.070351116
-0.81000018 0.85999882 -0.063208975
-0.81000018 0.86999881 -0.055908777
-0.81000018 0.8799988 -0.048468906
-0.81000018 0.88999879 -0.040907815
-0.81000018 0.89999878 -0.033244547
-0.81000018 0.90999877 -0.025498113
-0.81000018 0.91999876 -0.017688021
-0.81000018 0.92999876 -0.0098336451
-0.81000018 0.93999875 -0.0019547641
-0.81000018 0.94999874 0.0059290775
-0.81000018 0.95999873 0.013798025
-0.81000018 0.96999872 0.02163256
-0.81000018 0.97999871 0.029412948
-0.81000018 0.9899987 0.037119895
-0.81000018 0.99999869 0.04473399
-0.80000019 -1 0.042935286
-0.80000019 -0.99000001 0.035627455
-0.80000019 -0.98000002 0.028230643
-0.80000019 -0.97000003 0.020763271
-0.80000019 -0.96000004 0.013243929
-0.80000019 -0.95000005 0.005691485
-0.80000019 -0.94000006 -0.0018751125
-0.80000019 -0.93000007 -0.0094370237
-0.80000019 -0.92000008 -0.016975418
-0.80000019 -0.91000009 -0.024471385
-0.80000019 -0.9000001 -0.031906113
-0.80000019 -0.8900001 -0.039261092
-0.80000019 -0.88000011 -0.046518013
-0.80000019 -0.87000012 -0.053658657
-0.80000019 -0.86000013 -0.060665119
-0.80000019 -0.85000014 -0.067519948
-0.80000019 -0.84000015 -0.074206084
-0.80000019 -0.83000016 -0.08070673
-0.80000019 -0.82000017 -0.087005608
-0.80000019 -0.81000018 -0.09308701
-0.80000019 -0.80000019 -0.09893579
-0.80000019 -0.7900002 -0.10453726
-0.80000019 -0.78000021 -0.10987745
-0.80000019 -0.77000022 -0.11494301
-0.80000019 -0.76000023 -0.11972126
-0.80000019 -0.75000024 -0.12420027
-0.80000019 -0.74000025 -0.12836884
-0.80000019 -0.73000026 -0.13221657
-0.80000019 -0.72000027 -0.13573383
-0.80000019 -0.71000028 -0.1389118
-0.80000019 -0.70000029 -0.14174259
-0.80000019 -0.6900003 -0.14421909
-0.80000019 -0.68000031 -0.14633512
-0.80000019 -0.67000031 -0.14808539
-0.80000019 -0.66000032 -0.14946552
-0.80000019 -0.65000033 -0.15047206
-0.80000019 -0.64000034 -0.1511025
-0.80000019 -0.63000035 -0.15135527
-0.80000019 -0.62000036 -0.15122972
-0.80000019 -0.61000037 -0.15072618
-0.80000019 -0.60000038 -0.14984591
-0.80000019 -0.59000039 -0.1485911
-0.80000019 -0.5800004 -0.14696491
-0.80000019 -0.57000041 -0.14497136
-0.80000019 -0.56000042 -0.14261547
-0.80000019 -0.55000043 -0.1399031
-0.80000019 -0.54000044 -0.13684106
-0.80000019 -0.53000045 -0.13343699
-0.80000019 -0.52000046 -0.12969938
-0.80000019 -0.51000047 -0.12563761
-0.80000019 -0.50000048 -0.12126181
-0.80000019 -0.49000049 -0.11658292
-0.80000019 -0.4800005 -0.11161263
-0.80000019 -0.47000051 -0.10636336
-0.80000019 -0.46000051 -0.10084824
-0.80000019 -0.45000052 -0.095081061
-0.80000019 -0.44000053 -0.089076221
-0.80000019 -0.43000054 -0.082848743
-0.80000019 -0.42000055 -0.076414175
-0.80000019 -0.41000056 -0.069788627
-0.80000019 -0.40000057 -0.062988639
-0.80000019 -0.39000058 -0.056031208
-0.80000019 -0.38000059 -0.048933733
-0.80000019 -0.3700006 -0.041713946
-0.80000019 -0.36000061 -0.034389898
-0.80000019 -0.35000062 -0.026979895
-0.80000019 -0.34000063 -0.019502455
-0.80000019 -0.33000064 -0.011976268
-0.80000019 -0.32000065 -0.0044201482
-0.80000019 -0.31000066 0.00314702
-0.80000019 -0.30000067 0.010706323
-0.80000019 -0.29000068 0.018238865
-0.80000019 -0.28000069 0.025725821
-0.80000019 -0.2700007 0.033148475
-0.80000019 -0.26000071 0.040488273
-0.80000019 -0.25000072 0.047726873
-0.80000019 -0.24000071 0.054846201
-0.80000019 -0.2300007 0.06182842
-0.80000019 -0.2200007 0.068656117
-0.80000019 -0.21000069 0.075312197
-0.80000019 -0.20000069 0.081780054
-0.80000019 -0.19000068 0.088043496
-0.80000019 -0.18000068 0.094086863
-0.80000019 -0.17000067 0.099895075
-0.80000019 -0.16000067 0.1054536
-0.80000019 -0.15000066 0.11074854
-0.80000019 -0.14000066 0.11576667
-0.80000019 -0.13000065 0.12049544
-0.80000019 -0.12000065 0.12492303
-0.80000019 -0.11000066 0.12903838
-0.80000019 -0.10000066 0.1328312
-0.80000019 -0.090000659 0.13629201
-0.80000019 -0.080000661 0.13941216
-0.80000019 -0.070000663 0.14218387
-0.80000019 -0.060000662 0.14460017
-0.80000019 -0.05000066 0.14665505
-0.80000019 -0.040000658 0.14834338
-0.80000019 -0.030000659 0.14966093
-0.80000019 -0.020000659 0.1506044
-0.80000019 -0.010000659 0.15117143
-0.80000019 -6.5915287e-07 0.15136062
-0.80000019 0.0099993404 0.15117149
-0.80000019 0.01999934 0.15060449
-0.80000019 0.02999934 0.14966108
-0.80000019 0.03999934 0.14834359
-0.80000019 0.049999341 0.14665531
-0.80000019 0.059999343 0.14460047
-0.80000019 0.069999345 0.14218421
-0.80000019 0.079999343 0.13941255
-0.80000019 0.08999934 0.13629246
-0.80000019 0.099999338 0.13283168
-0.80000019 0.10999934 0.1290389
-0.80000019 0.11999933 0.12492359
-0.80000019 0.12999934 0.12049603
-0.80000019 0.13999934 0.11576731
-0.80000019 0.14999935 0.11074921
-0.80000019 0.15999936 0.10545431
-0.80000019 0.16999936 0.09989582
-0.80000019 0.17999937 0.094087653
-0.80000019 0.18999937 0.088044301
-0.80000019 0.19999938 0.081780881
-0.80000019 0.20999938 0.075313076
-0.80000019 0.21999939 0.068657003
-0.80000019 0.22999939 0.061829329
-0.80000019 0.2399994 0.054847125
-0.80000019 0.2499994 0.047727816
-0.80000019 0.25999939 0.04048923
-0.80000019 0.26999938 0.03314944
-0.80000019 0.27999938 0.025726797
-0.80000019 0.28999937 0.01823985
-0.80000019 0.29999936 0.010707312
-0.80000019 0.30999935 0.0031480121
-0.80000019 0.31999934 -0.0044191564
-0.80000019 0.32999933 -0.011975279
-0.80000019 0.33999932 -0.019501472
-0.80000019 0.34999931 -0.026978919
-0.80000019 0.3599993 -0.034388933
-0.80000019 0.36999929 -0.041712996
-0.80000019 0.37999928 -0.048932794
-0.80000019 0.38999927 -0.056030288
-0.80000019 0.39999926 -0.062987737
-0.80000019 0.40999925 -0.069787763
-0.80000019 0.41999924 -0.076413304
-0.80000019 0.42999923 -0.08284793
-0.80000019 0.43999922 -0.089075401
-0.80000019 0.44999921 -0.095080301
-0.80000019 0.4599992 -0.10084748
-0.80000019 0.46999919 -0.10636266
-0.80000019 0.47999918 -0.11161194
-0.80000019 0.48999918 -0.11658229
-0.80000019 0.49999917 -0.1212612
-0.80000019 0.50999916 -0.12563707
-0.80000019 0.51999915 -0.12969887
-0.80000019 0.52999914 -0.13343653
-0.80000019 0.53999913 -0.13684063
-0.80000019 0.54999912 -0.13990273
-0.80000019 0.55999911 -0.14261512
-0.80000019 0.5699991 -0.14497107
-0.80000019 0.57999909 -0.14696465
-0.80000019 0.58999908 -0.14859092
-0.80000019 0.59999907 -0.14984578
-0.80000019 0.60999906 -0.15072609
-0.80000019 0.61999905 -0.15122968
-0.80000019 0.62999904 -0.15135528
-0.80000019 0.63999903 -0.15110256
-0.80000019 0.64999902 -0.15047216
-0.80000019 0.65999901 -0.14946567
-0.80000019 0.669999 -0.14808558
-0.80000019 0.67999899 -0.14633536
-0.80000019 0.68999898 -0.14421938
-0.80000019 0.69999897 -0.14174294
-0.80000019 0.70999897 -0.13891219
-0.80000019 0.71999896 -0.13573426
-0.80000019 0.72999895 -0.13221705
-0.80000019 0.73999894 -0.12836939
-0.80000019 0.74999893 -0.12420083
-0.80000019 0.75999892 -0.11972187
-0.80000019 0.76999891 -0.11494363
-0.80000019 0.7799989 -0.10987815
-0.80000019 0.78999889 -0.10453798
-0.80000019 0.79999888 -0.098936558
-0.80000019 0.80999887 -0.0930878
-0.80000019 0.81999886 -0.087006427
-0.80000019 0.82999885 -0.080707528
-0.80000019 0.83999884 -0.074206963
-0.80000019 0.84999883 -0.067520849
-0.80000019 0.85999882 -0.060666043
-0.80000019 0.86999881 -0.053659536
-0.80000019 0.8799988 -0.046518974
-0.80000019 0.88999879 -0.039262071
-0.80000019 0.89999878 -0.0319071
-0.80000019 0.90999877 -0.024472309
-0.80000019 0.91999876 -0.016976424
-0.80000019 0.92999876 -0.0094380314
-0.80000019 0.93999875 -0.0018761228
-0.80000019 0.94999874 0.0056905472
-0.80000019 0.95999873 0.013242923
-0.80000019 0.96999872 0.02076227
-0.80000019 0.97999871 0.028229648
-0.80000019 0.9899987 0.035626542
-0.80000019 0.99999869 0.042934317
-0.7900002 -1 0.041028265
-0.7900002 -0.99000001 0.034045018
-0.7900002 -0.98000002 0.026976747
-0.7900002 -0.97000003 0.019841047
-0.7900002 -0.96000004 0.012655685
-0.7900002 -0.95000005 0.0054386915
-0.7900002 -0.94000006 -0.0017918273
-0.7900002 -0.93000007 -0.009017867
-0.7900002 -0.92000008 -0.016221436
-0.7900002 -0.91000009 -0.023384459
-0.7900002 -0.9000001 -0.030488964
-0.7900002 -0.8900001 -0.037517264
-0.7900002 -0.88000011 -0.044451863
-0.7900002 -0.87000012 -0.051275346
-0.7900002 -0.86000013 -0.057970606
-0.7900002 -0.85000014 -0.064520977
-0.7900002 -0.84000015 -0.070910133
-0.7900002 -0.83000016 -0.077122048
-0.7900002 -0.82000017 -0.083141148
-0.7900002 -0.81000018 -0.088952444
-0.7900002 -0.80000019 -0.094541445
-0.7900002 -0.7900002 -0.099894121
-0.7900002 -0.78000021 -0.10499712
-0.7900002 -0.77000022 -0.10983768
-0.7900002 -0.76000023 -0.11440369
-0.7900002 -0.75000024 -0.11868377
-0.7900002 -0.74000025 -0.12266719
-0.7900002 -0.73000026 -0.12634401
-0.7900002 -0.72000027 -0.12970504
-0.7900002 -0.71000028 -0.13274188
-0.7900002 -0.70000029 -0.13544694
-0.7900002 -0.6900003 -0.13781343
-0.7900002 -0.68000031 -0.13983548
-0.7900002 -0.67000031 -0.141508
-0.7900002 -0.66000032 -0.14282683
-0.7900002 -0.65000033 -0.14378867
-0.7900002 -0.64000034 -0.1443911
-0.7900002 -0.63000035 -0.14463265
-0.7900002 -0.62000036 -0.14451268
-0.7900002 -0.61000037 -0.14403151
-0.7900002 -0.60000038 -0.14319034
-0.7900002 -0.59000039 -0.14199126
-0.7900002 -0.5800004 -0.14043729
-0.7900002 -0.57000041 -0.13853228
-0.7900002 -0.56000042 -0.13628104
-0.7900002 -0.55000043 -0.13368915
-0.7900002 -0.54000044 -0.1307631
-0.7900002 -0.53000045 -0.12751023
-0.7900002 -0.52000046 -0.12393864
-0.7900002 -0.51000047 -0.12005727
-0.7900002 -0.50000048 -0.11587583
-0.7900002 -0.49000049 -0.11140475
-0.7900002 -0.4800005 -0.10665523
-0.7900002 -0.47000051 -0.10163911
-0.7900002 -0.46000051 -0.096368954
-0.7900002 -0.45000052 -0.090857923
-0.7900002 -0.44000053 -0.085119799
-0.7900002 -0.43000054 -0.079168916
-0.7900002 -0.42000055 -0.073020153
-0.7900002 -0.41000056 -0.06668888
-0.7900002 -0.40000057 -0.060190924
-0.7900002 -0.39000058 -0.053542517
-0.7900002 -0.38000059 -0.046760287
-0.7900002 -0.3700006 -0.039861172
-0.7900002 -0.36000061 -0.032862432
-0.7900002 -0.35000062 -0.025781551
-0.7900002 -0.34000063 -0.01863623
-0.7900002 -0.33000064 -0.011444328
-0.7900002 -0.32000065 -0.0042238222
-0.7900002 -0.31000066 0.0030072415
-0.7900002 -0.30000067 0.01023079
-0.7900002 -0.29000068 0.017428765
-0.7900002 -0.28000069 0.024583178
-0.7900002 -0.2700007 0.031676147
-0.7900002 -0.26000071 0.038689941
-0.7900002 -0.25000072 0.04560703
-0.7900002 -0.24000071 0.052410144
-0.7900002 -0.2300007 0.05908224
-0.7900002 -0.2200007 0.065606676
-0.7900002 -0.21000069 0.071967117
-0.7900002 -0.20000069 0.078147702
-0.7900002 -0.19000068 0.084132947
-0.7900002 -0.18000068 0.089907892
-0.7900002 -0.17000067 0.09545812
-0.7900002 -0.16000067 0.10076976
-0.7900002 -0.15000066 0.10582951
-0.7900002 -0.14000066 0.11062475
-0.7900002 -0.13000065 0.1151435
-0.7900002 -0.12000065 0.11937443
-0.7900002 -0.11000066 0.12330699
-0.7900002 -0.10000066 0.12693135
-0.7900002 -0.090000659 0.13023844
-0.7900002 -0.080000661 0.13322002
-0.7900002 -0.070000663 0.13586861
-0.7900002 -0.060000662 0.13817759
-0.7900002 -0.05000066 0.1401412
-0.7900002 -0.040000658 0.14175455
-0.7900002 -0.030000659 0.14301357
-0.7900002 -0.020000659 0.14391513
-0.7900002 -0.010000659 0.14445698
-0.7900002 -6.5915287e-07 0.14463776
-0.7900002 0.0099993404 0.14445703
-0.7900002 0.01999934 0.14391522
-0.7900002 0.02999934 0.1430137
-0.7900002 0.03999934 0.14175473
-0.7900002 0.049999341 0.14014144
-0.7900002 0.059999343 0.13817787
-0.7900002 0.069999345 0.13586894
-0.7900002 0.079999343 0.13322039
-0.7900002 0.08999934 0.13023886
-0.7900002 0.099999338 0.12693182
-0.7900002 0.10999934 0.12330749
-0.7900002 0.11999933 0.11937497
-0.7900002 0.12999934 0.11514407
-0.7900002 0.13999934 0.11062537
-0.7900002 0.14999935 0.10583016
-0.7900002 0.15999936 0.10077044
-0.7900002 0.16999936 0.095458835
-0.7900002 0.17999937 0.089908637
-0.7900002 0.18999937 0.084133714
-0.7900002 0.19999938 0.078148492
-0.7900002 0.20999938 0.071967959
-0.7900002 0.21999939 0.065607525
-0.7900002 0.22999939 0.059083108
-0.7900002 0.2399994 0.052411027
-0.7900002 0.2499994 0.045607932
-0.7900002 0.25999939 0.038690854
-0.7900002 0.26999938 0.031677071
-0.7900002 0.27999938 0.024584111
-0.7900002 0.28999937 0.017429706
-0.7900002 0.29999936 0.010231734
-0.7900002 0.30999935 0.0030081896
-0.7900002 0.31999934 -0.0042228745
-0.7900002 0.32999933 -0.011443384
-0.7900002 0.33999932 -0.018635292
-0.7900002 0.34999931 -0.025780618
-0.7900002 0.3599993 -0.032861508
-0.7900002 0.36999929 -0.039860263
-0.7900002 0.37999928 -0.046759389
-0.7900002 0.38999927 -0.053541638
-0.7900002 0.39999926 -0.060190063
-0.7900002 0.40999925 -0.066688053
-0.7900002 0.41999924 -0.073019318
-0.7900002 0.42999923 -0.079168141
-0.7900002 0.43999922 -0.085119016
-0.7900002 0.44999921 -0.0908572
-0.7900002 0.4599992 -0.096368231
-0.7900002 0.46999919 -0.10163844
-0.7900002 0.47999918 -0.10665457
-0.7900002 0.48999918 -0.11140415
-0.7900002 0.49999917 -0.11587524
-0.7900002 0.50999916 -0.12005676
-0.7900002 0.51999915 -0.12393815
-0.7900002 0.52999914 -0.12750979
-0.7900002 0.53999913 -0.1307627
-0.7900002 0.54999912 -0.13368879
-0.7900002 0.55999911 -0.13628072
-0.7900002 0.5699991 -0.13853201
-0.7900002 0.57999909 -0.14043705
-0.7900002 0.58999908 -0.14199109
-0.7900002 0.59999907 -0.14319021
-0.7900002 0.60999906 -0.14403142
-0.7900002 0.61999905 -0.14451264
-0.7900002 0.62999904 -0.14463265
-0.7900002 0.63999903 -0.14439116
-0.7900002 0.64999902 -0.14378877
-0.7900002 0.65999901 -0.14282699
-0.7900002 0.669999 -0.14150819
-0.7900002 0.67999899 -0.13983572
-0.7900002 0.68999898 -0.13781372
-0.7900002 0.69999897 -0.13544726
-0.7900002 0.70999897 -0.13274224
-0.7900002 0.71999896 -0.12970547
-0.7900002 0.72999895 -0.12634447
-0.7900002 0.73999894 -0.12266771
-0.7900002 0.74999893 -0.11868431
-0.7900002 0.75999892 -0.11440429
-0.7900002 0.76999891 -0.10983828
-0.7900002 0.7799989 -0.10499778
-0.7900002 0.78999889 -0.099894799
-0.7900002 0.79999888 -0.094542176
-0.7900002 0.80999887 -0.088953197
-0.7900002 0.81999886 -0.083141938
-0.7900002 0.82999885 -0.077122808
-0.7900002 0.83999884 -0.070910975
-0.7900002 0.84999883 -0.064521834
-0.7900002 0.85999882 -0.057971492
-0.7900002 0.86999881 -0.051276185
-0.7900002 0.8799988 -0.044452779
-0.7900002 0.88999879 -0.0375182
-0.7900002 0.89999878 -0.030489909
-0.7900002 0.90999877 -0.023385344
-0.7900002 0.91999876 -0.016222395
-0.7900002 0.92999876 -0.009018831
-0.7900002 0.93999875 -0.0017927926
-0.7900002 0.94999874 0.0054377951
-0.7900002 0.95999873 0.012654724
-0.7900002 0.96999872 0.01984009
-0.7900002 0.97999871 0.026975796
-0.7900002 0.9899987 0.034044147
-0.7900002 0.99999869 0.041027341
-0.78000021 -1 0.039018694
-0.78000021 -0.99000001 0.032377489
-0.78000021 -0.98000002 0.02565542
-0.78000021 -0.97000003 0.018869229
-0.78000021 -0.96000004 0.012035807
-0.78000021 -0.95000005 0.0051723034
-0.78000021 -0.94000006 -0.0017040633
-0.78000021 -0.93000007 -0.0085761705
-0.78000021 -0.92000008 -0.015426907
-0.78000021 -0.91000009 -0.022239085
-0.78000021 -0.9000001 -0.028995611
-0.78000021 -0.8900001 -0.035679664
-0.78000021 -0.88000011 -0.042274602
-0.78000021 -0.87000012 -0.048763871
-0.78000021 -0.86000013 -0.055131197
-0.78000021 -0.85000014 -0.061360728
-0.78000021 -0.84000015 -0.067436941
-0.78000021 -0.83000016 -0.073344596
-0.78000021 -0.82000017 -0.079068884
-0.78000021 -0.81000018 -0.084595539
-0.78000021 -0.80000019 -0.08991079
-0.78000021 -0.7900002 -0.095001288
-0.78000021 -0.78000021 -0.099854343
-0.78000021 -0.77000022 -0.10445781
-0.78000021 -0.76000023 -0.10880019
-0.78000021 -0.75000024 -0.11287062
-0.78000021 -0.74000025 -0.11665893
-0.78000021 -0.73000026 -0.12015566
-0.78000021 -0.72000027 -0.12335207
-0.78000021 -0.71000028 -0.12624016
-0.78000021 -0.70000029 -0.12881272
-0.78000021 -0.6900003 -0.1310633
-0.78000021 -0.68000031 -0.13298631
-0.78000021 -0.67000031 -0.13457692
-0.78000021 -0.66000032 -0.13583115
-0.78000021 -0.65000033 -0.13674587
-0.78000021 -0.64000034 -0.1373188
-0.78000021 -0.63000035 -0.13754852
-0.78000021 -0.62000036 -0.13743442
-0.78000021 -0.61000037 -0.13697682
-0.78000021 -0.60000038 -0.13617685
-0.78000021 -0.59000039 -0.13503651
-0.78000021 -0.5800004 -0.13355865
-0.78000021 -0.57000041 -0.13174695
-0.78000021 -0.56000042 -0.12960596
-0.78000021 -0.55000043 -0.12714103
-0.78000021 -0.54000044 -0.1243583
-0.78000021 -0.53000045 -0.12126476
-0.78000021 -0.52000046 -0.1178681
-0.78000021 -0.51000047 -0.11417685
-0.78000021 -0.50000048 -0.1102002
-0.78000021 -0.49000049 -0.10594813
-0.78000021 -0.4800005 -0.10143123
-0.78000021 -0.47000051 -0.096660808
-0.78000021 -0.46000051 -0.091648787
-0.78000021 -0.45000052 -0.086407691
-0.78000021 -0.44000053 -0.080950618
-0.78000021 -0.43000054 -0.075291209
-0.78000021 -0.42000055 -0.069443613
-0.78000021 -0.41000056 -0.063422449
-0.78000021 -0.40000057 -0.057242762
-0.78000021 -0.39000058 -0.050919995
-0.78000021 -0.38000059 -0.04446996
-0.78000021 -0.3700006 -0.037908766
-0.78000021 -0.36000061 -0.031252824
-0.78000021 -0.35000062 -0.024518767
-0.78000021 -0.34000063 -0.017723424
-0.78000021 -0.33000064 -0.010883784
-0.78000021 -0.32000065 -0.0040169386
-0.78000021 -0.31000066 0.0028599463
-0.78000021 -0.30000067 0.0097296834
-0.78000021 -0.29000068 0.016575102
-0.78000021 -0.28000069 0.023379091
-0.78000021 -0.2700007 0.030124644
-0.78000021 -0.26000071 0.036794901
-0.78000021 -0.25000072 0.04337319
-0.78000021 -0.24000071 0.049843084
-0.78000021 -0.2300007 0.056188382
-0.78000021 -0.2200007 0.062393252
-0.78000021 -0.21000069 0.068442158
-0.78000021 -0.20000069 0.074320011
-0.78000021 -0.19000068 0.080012098
-0.78000021 -0.18000068 0.085504189
-0.78000021 -0.17000067 0.09078256
-0.78000021 -0.16000067 0.095834039
-0.78000021 -0.15000066 0.10064597
-0.78000021 -0.14000066 0.10520634
-0.78000021 -0.13000065 0.10950375
-0.78000021 -0.12000065 0.11352745
-0.78000021 -0.11000066 0.11726739
-0.78000021 -0.10000066 0.12071423
-0.78000021 -0.090000659 0.12385935
-0.78000021 -0.080000661 0.12669489
-0.78000021 -0.070000663 0.12921374
-0.78000021 -0.060000662 0.13140963
-0.78000021 -0.05000066 0.13327706
-0.78000021 -0.040000658 0.13481139
-0.78000021 -0.030000659 0.13600874
-0.78000021 -0.020000659 0.13686614
-0.78000021 -0.010000659 0.13738145
-0.78000021 -6.5915287e-07 0.13755338
-0.78000021 0.0099993404 0.13738151
-0.78000021 0.01999934 0.13686623
-0.78000021 0.02999934 0.13600887
-0.78000021 0.03999934 0.13481157
-0.78000021 0.049999341 0.1332773
-0.78000021 0.059999343 0.1314099
-0.78000021 0.069999345 0.12921405
-0.78000021 0.079999343 0.12669523
-0.78000021 0.08999934 0.12385975
-0.78000021 0.099999338 0.12071467
-0.78000021 0.10999934 0.11726787
-0.78000021 0.11999933 0.11352796
-0.78000021 0.12999934 0.10950429
-0.78000021 0.13999934 0.10520692
-0.78000021 0.14999935 0.10064658
-0.78000021 0.15999936 0.095834687
-0.78000021 0.16999936 0.090783246
-0.78000021 0.17999937 0.085504897
-0.78000021 0.18999937 0.080012828
-0.78000021 0.19999938 0.074320763
-0.78000021 0.20999938 0.068442956
-0.78000021 0.21999939 0.062394056
-0.78000021 0.22999939 0.056189205
-0.78000021 0.2399994 0.049843926
-0.78000021 0.2499994 0.043374047
-0.78000021 0.25999939 0.036795769
-0.78000021 0.26999938 0.030125523
-0.78000021 0.27999938 0.023379978
