# .PCD v0.7 - Point Cloud Data file format
VERSION 0.7
FIELDS x y z
SIZE 4 4 4
TYPE F F F
COUNT 1 1 1
WIDTH 99
HEIGHT 1
VIEWPOINT 0 0 0 1 0 0 0
POINTS 99
DATA ascii
-0.10000066 -0.38000059 0.030999109
-0.080000661 -0.39000058 0.028831478
-0.060000662 -0.40000057 0.024596376
-0.05000066 -0.42000055 0.024980627
-0.05000066 -0.41000056 0.022814661
-0.040000658 -0.45000052 0.024960253
-0.040000658 -0.44000053 0.023383891
-0.040000658 -0.43000054 0.021749081
-0.030000659 -0.74000025 0.025348229
-0.030000659 -0.50000048 0.023944845
-0.030000659 -0.49000049 0.023020932
-0.030000659 -0.4800005 0.022039479
-0.030000659 -0.47000051 0.021002937
-0.030000659 -0.46000051 0.019913901
-0.020000659 -0.60000038 0.019767521
-0.020000659 -0.59000039 0.019601988
-0.020000659 -0.5800004 0.019387459
-0.020000659 -0.57000041 0.019124473
-0.020000659 -0.56000042 0.018813686
-0.020000659 -0.55000043 0.018455874
-0.020000659 -0.54000044 0.018051933
0.02999934 -0.21000069 0.014870801
0.03999934 -0.25000072 0.012528637
0.03999934 -0.24000071 0.01439751
0.049999341 -0.2700007 0.010836317
0.049999341 -0.26000071 0.013235715
0.059999343 -0.28000069 0.010045438
0.069999345 -0.29000068 0.008263723
0.079999343 -0.29000068 0.0093848621
0.08999934 -0.30000067 0.0061533176
0.099999338 -0.30000067 0.006782284
0.10999934 -0.31000066 0.0021734824
0.11999933 -0.31000066 0.0023479457
0.12999934 -0.31000066 0.0025165402
0.13999934 -0.31000066 0.0026788448
0.15999936 -0.32000065 -0.0041897432
0.16999936 -0.32000065 -0.0043878802
0.17999937 -0.32000065 -0.0045750504
0.18999937 -0.32000065 -0.0047507854
0.19999938 -0.32000065 -0.0049146456
0.20999938 -0.32000065 -0.005066222
0.22999939 -0.33000064 -0.0144443
0.2399994 -0.33000064 -0.014749329
0.2499994 -0.33000064 -0.01501749
0.25999939 -0.33000064 -0.015248116
0.26999938 -0.33000064 -0.01544063
0.27999938 -0.33000064 -0.01559455
0.28999937 -0.33000064 -0.015709493
0.29999936 -0.33000064 -0.015785169
0.30999935 -0.33000064 -0.015821392
0.31999934 -0.34000063 -0.025758537
0.32999933 -0.34000063 -0.025688743
0.33999932 -0.34000063 -0.025554741
0.34999931 -0.34000063 -0.025356865
0.3599993 -0.34000063 -0.025095608
0.36999929 -0.34000063 -0.024771629
0.37999928 -0.34000063 -0.024385732
0.38999927 -0.35000062 -0.033117294
0.39999926 -0.35000062 -0.032416344
0.40999925 -0.35000062 -0.031634368
0.41999924 -0.35000062 -0.03077333
0.42999923 -0.36000061 -0.038029622
0.42999923 -0.35000062 -0.029835366
0.43999922 -0.36000061 -0.036739003
0.44999921 -0.36000061 -0.035356544
0.4599992 -0.3700006 -0.041102398
0.4599992 -0.36000061 -0.033885725
0.46999919 -0.3700006 -0.039215583
0.47999918 -0.38000059 -0.043674622
0.47999918 -0.3700006 -0.037230775
0.48999918 -0.38000059 -0.041237094
0.49999917 -0.39000058 -0.044309162
0.49999917 -0.38000059 -0.038696516
0.50999916 -0.40000057 -0.046416234
0.50999916 -0.39000058 -0.041289315
0.51999915 -0.41000056 -0.047537327
0.51999915 -0.40000057 -0.042905435
0.52999914 -0.42000055 -0.047661155
0.52999914 -0.41000056 -0.043528657
0.53999913 -0.43000054 -0.046786569
0.53999913 -0.42000055 -0.043152824
0.53999913 0.42999923 -0.046786111
0.54999912 -0.45000052 -0.047950529
0.54999912 -0.44000053 -0.044922218
0.55999911 -0.4800005 -0.049404383
0.55999911 -0.47000051 -0.047080837
0.55999911 -0.46000051 -0.044639617
0.5699991 -0.52000046 -0.049268119
0.5699991 -0.51000047 -0.047725197
0.5699991 -0.50000048 -0.046062987
0.57999909 -0.67000031 -0.046815347
0.57999909 -0.66000032 -0.047251657
0.57999909 -0.65000033 -0.047569863
0.57999909 -0.64000034 -0.04776917
0.57999909 -0.63000035 -0.047849081
0.57999909 -0.62000036 -0.047809392
0.57999909 -0.61000037 -0.047650207
0.57999909 -0.60000038 -0.047371916
0.71999896 -0.090000659 -0.079692259
